1022
-6.0000 0.8381 0.0405 255 0 0
-6.0000 0.2047 0.2062 255 0 0
-6.0000 -0.1267 0.2242 255 0 0
-6.0000 -0.0641 0.1103 255 0 0
-6.0000 -0.6006 0.1298 255 0 0
-6.0000 -0.4197 -0.3363 255 0 0
-6.0000 -0.0208 -0.8341 255 0 0
-6.0000 0.0435 -0.7413 254 0 0
-6.0000 0.1043 -0.1459 255 0 0
-6.0000 0.7742 -0.2262 255 0 0
-5.2840 0.8179 0.4397 255 0 0
-2.9502 0.9777 0.0538 255 0 0
-5.9172 0.8908 0.2637 255 0 0
-1.6244 0.9946 0.0131 255 0 0
-5.4127 0.8961 0.2507 254 0 0
-5.1137 0.8287 0.4135 255 0 0
-4.6012 0.8085 0.4623 255 0 0
-4.0330 0.7140 0.6906 254 0 0
-1.7063 0.7718 0.5508 255 0 0
-1.7278 0.7406 0.6263 254 0 0
-1.0116 0.8506 0.3607 255 0 0
-3.3372 0.7566 0.5876 255 0 0
-1.4619 0.9220 0.1884 255 0 0
-1.2436 0.8269 0.4179 255 0 0
-5.6818 0.2016 0.9165 255 0 0
-3.4949 0.3384 0.8598 255 0 0
-4.0417 0.3338 0.8617 255 0 0
-5.9524 0.2857 0.8817 254 0 0
-2.1014 0.6764 0.7198 255 0 0
-2.9512 0.7070 0.7072 255 0 0
-3.8644 0.5950 0.7535 255 0 0
-1.8506 0.0312 0.9871 254 0 0
-2.9417 0.0423 0.9825 254 0 0
-1.9405 0.0666 0.9724 255 0 0
-1.1093 0.1989 0.9176 255 0 0
-4.6945 0.1514 0.9373 254 0 0
-3.0338 0.1123 0.9535 255 0 0
-5.9248 -0.5343 0.7787 255 0 0
-5.5824 -0.1426 0.9409 255 0 0
-5.4550 -0.3467 0.8564 255 0 0
-4.6162 -0.4102 0.8301 254 0 0
-5.6005 -0.2735 0.8867 255 0 0
-2.7560 -0.2245 0.9070 255 0 0
-5.3421 -0.6777 0.7193 255 0 0
-2.0831 -0.5938 0.7541 255 0 0
-2.3830 -0.4215 0.8254 255 0 0
-2.1214 -0.3952 0.8363 255 0 0
-0.9752 -0.2660 0.8898 255 0 0
-4.2252 -0.5005 0.7927 255 0 0
-3.1115 -0.5208 0.7843 255 0 0
-4.9566 -0.9243 0.1827 255 0 0
-4.6206 -0.8047 0.4716 255 0 0
-4.8689 -0.7298 0.6522 254 0 0
-4.5216 -0.8525 0.3562 255 0 0
-4.5041 -0.8392 0.3881 255 0 0
-5.0203 -0.7579 0.5844 255 0 0
-5.0236 -0.7238 0.6667 255 0 0
-1.3395 -0.8105 0.4575 255 0 0
-1.7514 -0.8832 0.2820 255 0 0
-2.3674 -0.9382 0.1493 255 0 0
-2.2679 -0.9982 0.0042 255 0 0
-3.3638 -0.9813 0.0452 255 0 0
-4.2842 -0.9822 0.0429 255 0 0
-3.4055 -0.9726 0.0661 255 0 0
-3.7216 -0.9574 -0.1028 255 0 0
-5.7612 -0.8888 -0.2685 255 0 0
-2.8991 -0.9992 -0.0019 255 0 0
-5.5323 -0.7438 -0.6185 255 0 0
-4.3822 -0.9784 -0.0522 255 0 0
-3.8687 -0.9645 -0.0856 255 0 0
-3.9736 -0.8317 -0.4063 255 0 0
-1.7879 -0.7913 -0.5039 255 0 0
-1.5227 -0.9494 -0.1223 255 0 0
-0.8996 -0.8809 -0.2876 255 0 0
-1.4413 -0.8718 -0.3094 255 0 0
-5.0009 -0.7214 -0.6725 255 0 0
-2.8571 -0.7083 -0.7042 255 0 0
-1.0147 -0.9809 -0.0460 254 0 0
-3.5602 -0.4644 -0.8076 255 0 0
-5.1710 -0.2007 -0.9169 255 0 0
-5.3935 -0.2009 -0.9168 254 0 0
-5.8830 -0.3107 -0.8713 255 0 0
-4.7724 -0.4135 -0.8287 255 0 0
-5.9102 -0.5564 -0.7695 254 0 0
-5.2177 -0.6605 -0.7264 255 0 0
-5.5833 -0.0339 -0.9860 255 0 0
-2.2070 -0.1026 -0.9575 255 0 0
-2.3980 -0.4648 -0.8075 254 0 0
-2.9114 -0.0044 -0.9982 255 0 0
-1.5262 -0.2653 -0.8901 254 0 0
-1.0764 -0.3553 -0.8528 255 0 0
-1.0041 -0.3598 -0.8510 255 0 0
-5.8203 0.0320 -0.9868 255 0 0
-4.1596 0.0887 -0.9632 255 0 0
-4.2423 0.2613 -0.8917 255 0 0
-5.5600 0.3725 -0.8457 255 0 0
-5.6141 0.3040 -0.8741 255 0 0
-3.9091 0.1434 -0.9406 255 0 0
-2.8043 0.5869 -0.7569 255 0 0
-4.7040 0.6493 -0.7311 255 0 0
-3.1206 0.6895 -0.7144 255 0 0
-3.1270 0.3055 -0.8735 255 0 0
-1.8576 0.2756 -0.8858 255 0 0
-4.0314 0.5340 -0.7788 255 0 0
-0.9354 0.5684 -0.7646 255 0 0
-5.3409 0.7325 -0.6457 255 0 0
-5.0827 0.8166 -0.4427 255 0 0
-2.5645 0.7730 -0.5480 255 0 0
-4.4934 0.7732 -0.5475 255 0 0
-5.6568 0.7753 -0.5426 255 0 0
-4.1258 0.7270 -0.6591 255 0 0
-1.9327 0.7438 -0.6186 255 0 0
-3.9238 0.8895 -0.2667 255 0 0
-1.0360 0.8039 -0.4733 255 0 0
-0.9915 0.8059 -0.4687 255 0 0
-4.4902 0.9948 -0.0126 255 0 0
-4.2089 0.9765 -0.0568 255 0 0
-2.7420 0.9197 -0.1939 255 0 0
2.0798 0.9152 0.2046 255 0 0
5.1147 0.9847 0.0370 255 0 0
1.1054 0.9866 0.0323 255 0 0
1.6122 0.7697 0.5560 255 0 0
1.1412 0.7836 0.5224 254 0 0
2.4020 0.9808 0.0464 255 0 0
3.1321 0.7488 0.6064 255 0 0
4.8135 0.8498 0.3626 254 0 0
2.1766 0.7529 0.5965 255 0 0
2.4867 0.7530 0.5964 255 0 0
3.3367 0.8456 0.3728 255 0 0
2.9709 0.7898 0.5075 255 0 0
4.9086 0.8832 0.2820 255 0 0
1.3536 0.3568 0.8522 255 0 0
3.1815 0.5036 0.7914 255 0 0
4.6835 0.5908 0.7553 255 0 0
2.6822 0.5260 0.7821 255 0 0
4.1271 0.6042 0.7497 254 0 0
2.0602 0.6992 0.7104 255 0 0
2.7509 0.6840 0.7167 255 0 0
5.6384 0.4007 0.8340 255 0 0
5.4604 0.1853 0.9232 255 0 0
5.0860 0.0230 0.9905 254 0 0
4.5316 0.4511 0.8132 255 0 0
5.8679 0.6071 0.7485 255 0 0
5.5665 0.0017 0.9993 255 0 0
0.9570 -0.3850 0.8405 255 0 0
3.3219 -0.1955 0.9190 255 0 0
2.4445 -0.3191 0.8678 255 0 0
0.9747 -0.6597 0.7267 255 0 0
2.1800 -0.1645 0.9319 255 0 0
4.2990 -0.1079 0.9553 255 0 0
5.5351 -0.1511 0.9374 255 0 0
5.9302 -0.3962 0.8359 254 0 0
3.1613 -0.6015 0.7509 254 0 0
4.9945 -0.4525 0.8126 255 0 0
1.1491 -0.6988 0.7106 254 0 0
5.0567 -0.4991 0.7933 254 0 0
2.5507 -0.7223 0.6705 254 0 0
2.8553 -0.7524 0.5977 255 0 0
3.0953 -0.7089 0.7027 255 0 0
1.1593 -0.8888 0.2686 255 0 0
5.4346 -0.7243 0.6656 255 0 0
1.3779 -0.9222 0.1879 255 0 0
4.9855 -0.7111 0.6976 255 0 0
5.6667 -0.9163 0.2021 255 0 0
3.2486 -0.9093 0.2189 255 0 0
1.6431 -0.9717 0.0683 255 0 0
4.7276 -0.8955 0.2523 255 0 0
2.4343 -0.9514 0.1173 255 0 0
4.7954 -0.7999 0.4831 255 0 0
3.5979 -0.9835 0.0399 254 0 0
2.0501 -0.8150 -0.4466 255 0 0
3.8036 -0.8943 -0.2551 255 0 0
1.9618 -0.7852 -0.5186 255 0 0
3.3514 -0.8915 -0.2618 255 0 0
4.4300 -0.9238 -0.1841 255 0 0
2.5679 -0.9489 -0.1234 255 0 0
5.6883 -0.7294 -0.6533 254 0 0
5.4982 -0.8520 -0.3574 255 0 0
4.5363 -0.8088 -0.4616 254 0 0
5.9699 -0.8882 -0.2698 255 0 0
3.3423 -0.8247 -0.4232 254 0 0
4.3089 -0.8689 -0.3166 255 0 0
1.8431 -0.1278 -0.9471 255 0 0
2.0546 -0.2649 -0.8903 255 0 0
4.2237 -0.5519 -0.7714 254 0 0
3.5335 -0.5108 -0.7884 255 0 0
1.0481 -0.0128 -0.9947 255 0 0
1.1625 -0.2932 -0.8786 255 0 0
3.4208 -0.2370 -0.9018 254 0 0
5.3417 -0.3903 -0.8383 255 0 0
2.5515 -0.1634 -0.9323 255 0 0
4.6772 -0.3817 -0.8419 255 0 0
4.5309 -0.3834 -0.8412 255 0 0
2.1257 -0.0879 -0.9636 255 0 0
4.9592 -0.2965 -0.8772 255 0 0
3.2996 0.2627 -0.8912 255 0 0
3.1754 0.0941 -0.9610 255 0 0
2.1683 0.3678 -0.8476 255 0 0
1.9912 0.2343 -0.9030 255 0 0
2.6885 0.4061 -0.8318 255 0 0
1.6087 0.5197 -0.7847 254 0 0
3.9659 0.5875 -0.7567 254 0 0
4.3478 0.3317 -0.8626 254 0 0
4.0841 0.6395 -0.7351 255 0 0
3.3778 0.4931 -0.7958 254 0 0
4.2543 0.5926 -0.7545 255 0 0
3.5459 0.4947 -0.7951 255 0 0
3.4974 0.7131 -0.6926 255 0 0
0.9892 0.8198 -0.4350 255 0 0
4.4827 0.7582 -0.5837 254 0 0
1.4946 0.8979 -0.2464 255 0 0
3.5304 0.7237 -0.6671 255 0 0
2.5959 0.7677 -0.5609 254 0 0
4.7392 0.7862 -0.5161 255 0 0
5.7929 0.8104 -0.4578 254 0 0
4.1814 0.9211 -0.1905 255 0 0
2.9323 0.9488 -0.1237 255 0 0
5.1915 0.9651 -0.0843 255 0 0
2.8481 0.9464 -0.1295 255 0 0
6.0000 0.9530 0.1951 255 0 0
6.0000 1.7800 0.0292 255 0 0
6.0000 1.6845 0.2751 255 0 0
6.0000 1.3586 1.1537 255 0 0
6.0000 0.3401 1.0178 255 0 0
6.0000 0.3334 1.6471 255 0 0
6.0000 0.6552 1.6994 255 0 0
6.0000 0.0075 1.4329 255 0 0
6.0000 -0.2082 1.2162 255 0 0
6.0000 -0.6110 1.5182 255 0 0
6.0000 -0.7325 1.6182 255 0 0
6.0000 -1.1006 0.4840 255 0 0
6.0000 -1.3268 0.9271 255 0 0
6.0000 -1.0668 0.2181 255 0 0
6.0000 -1.2497 0.1176 255 0 0
6.0000 -1.5195 -0.1732 255 0 0
6.0000 -1.3525 -1.1431 255 0 0
6.0000 -0.7367 -0.7358 255 0 0
6.0000 -1.3859 -0.5970 255 0 0
6.0000 -1.0411 -1.1515 254 0 0
6.0000 -1.2893 -1.4508 255 0 0
6.0000 -0.1276 -1.4034 255 0 0
6.0000 -0.7034 -1.3701 255 0 0
6.0000 0.0470 -1.2727 255 0 0
6.0000 0.2120 -1.5789 255 0 0
6.0000 0.8693 -1.5054 255 0 0
6.0000 0.9708 -1.1991 255 0 0
6.0000 0.3726 -1.5046 255 0 0
6.0000 0.7722 -0.6334 255 0 0
6.0000 1.0899 -0.6280 255 0 0
6.0000 1.8055 -0.2166 255 0 0
6.0000 1.3310 -0.5354 255 0 0
7.3028 1.2317 0.2821 255 0 0
6.3197 1.5504 0.6996 255 0 0
6.5782 1.3955 0.7615 255 0 0
6.0182 1.6700 0.7748 254 0 0
6.0397 1.7494 0.5570 255 0 0
7.8101 0.9898 0.2539 255 0 0
7.5429 0.9943 0.5655 255 0 0
6.8636 1.1741 0.9513 255 0 0
6.1106 1.2812 1.4140 255 0 0
6.5739 1.0745 1.2680 255 0 0
6.5474 0.4689 1.5321 255 0 0
7.0295 0.5451 1.2595 255 0 0
7.1710 0.7455 1.1057 255 0 0
6.2624 0.7012 1.5783 255 0 0
6.8544 0.2308 1.4772 254 0 0
7.2429 0.3623 1.2285 255 0 0
7.9677 0.3981 0.8513 255 0 0
6.4451 -0.3200 1.6449 255 0 0
6.5982 -0.7621 1.3852 255 0 0
6.2136 -0.8842 1.5269 255 0 0
6.0488 -0.1173 1.9270 254 0 0
6.1094 -0.4456 1.7607 255 0 0
7.5716 -0.8318 0.8696 254 0 0
6.6755 -0.9914 1.2516 255 0 0
6.9679 -0.7989 1.1851 255 0 0
6.3082 -1.4421 0.9748 254 0 0
6.0590 -1.8561 0.2763 255 0 0
7.5661 -0.9019 0.7605 255 0 0
6.1223 -1.8139 0.3016 255 0 0
6.9668 -1.0815 1.0503 255 0 0
6.4031 -1.7618 0.0885 255 0 0
6.8108 -1.5792 0.0371 255 0 0
6.7733 -1.5108 0.2475 255 0 0
7.7092 -1.1180 -0.0660 255 0 0
6.2644 -1.5380 -0.7962 255 0 0
6.3581 -1.7712 -0.1200 254 0 0
6.9144 -1.4063 -0.3296 255 0 0
6.2432 -1.6604 -0.5264 255 0 0
7.0792 -1.0868 -0.9020 255 0 0
7.4624 -0.9070 -0.8735 255 0 0
6.1748 -1.3649 -1.3223 255 0 0
6.6833 -1.1604 -1.1777 255 0 0
6.1193 -1.1014 -1.4841 255 0 0
6.6389 -0.8326 -1.3357 255 0 0
6.6272 -0.7006 -1.3962 255 0 0
6.0338 -0.4431 -1.7995 255 0 0
6.0032 -0.7774 -1.6764 255 0 0
7.3569 -0.0254 -1.3110 255 0 0
6.8458 -0.2751 -1.4631 255 0 0
6.9085 0.1059 -1.5019 255 0 0
6.5202 0.6938 -1.4525 255 0 0
6.5814 0.5913 -1.4644 255 0 0
6.2961 1.0007 -1.4374 255 0 0
7.1454 0.0011 -1.4269 255 0 0
6.1707 0.4143 -1.7430 255 0 0
7.5843 0.4259 -1.0314 254 0 0
7.5015 0.7628 -0.9333 255 0 0
7.1015 0.7289 -1.1473 255 0 0
6.7829 1.2616 -0.8377 254 0 0
6.3357 1.6197 -0.5131 255 0 0
7.5730 0.8659 -0.8393 255 0 0
6.8871 1.1238 -1.0446 255 0 0
7.6581 0.9250 -0.5938 255 0 0
6.6979 1.3945 -0.6193 255 0 0
7.0883 1.3420 -0.2748 255 0 0
7.9488 0.9390 -0.2090 255 0 0
7.9893 0.9595 -0.1108 255 0 0
8.1231 0.9318 0.0161 255 0 0
8.8529 0.4824 0.2201 255 0 0
8.1761 0.1183 0.8629 255 0 0
8.1066 0.2000 0.8639 255 0 0
8.5279 0.1755 0.6633 255 0 0
8.5852 -0.2702 0.5955 255 0 0
8.7506 -0.0529 0.6028 255 0 0
8.9119 -0.1164 0.4958 254 0 0
8.1614 -0.6516 0.6463 255 0 0
8.8480 -0.4951 0.1953 255 0 0
8.7271 -0.5949 -0.1002 255 0 0
8.6029 -0.5412 -0.3799 255 0 0
8.0295 -0.2720 -0.8726 254 0 0
8.2407 -0.4971 -0.6738 254 0 0
8.8889 -0.2777 -0.4405 255 0 0
8.0729 0.6410 -0.6980 255 0 0
8.0081 0.3748 -0.8407 255 0 0
8.7389 0.2888 -0.5109 255 0 0
8.2926 0.6158 -0.5742 255 0 0
8.1812 0.6790 -0.5562 255 0 0
9.2626 0.0452 0.3500 255 0 0
9.2951 0.0056 0.3501 254 0 0
9.3217 -0.0052 0.3370 255 0 0
9.2963 -0.3276 0.0587 255 0 0
9.1084 -0.3915 -0.1310 255 0 0
9.7693 -0.0346 -0.1010 255 0 0
0.6923 -6.0000 -0.4290 0 255 0
0.6317 -6.0000 -0.6756 0 255 0
-0.0219 -6.0000 -0.9419 0 255 0
-0.1953 -6.0000 -0.4554 0 255 0
-0.5145 -6.0000 -0.0728 0 255 0
-0.6856 -6.0000 0.5960 0 255 0
-0.2139 -6.0000 0.5497 0 254 0
0.0267 -6.0000 0.0491 0 255 0
0.8835 -6.0000 0.0224 0 255 0
0.6588 -6.0000 0.4622 0 255 0
0.9011 -4.0207 -0.2387 0 254 0
0.9539 -5.3145 -0.1113 0 255 0
0.8161 -4.3125 -0.4439 0 255 0
0.9194 -3.4860 -0.1946 0 255 0
0.9157 -4.6498 -0.2035 0 255 0
0.9928 -5.4584 -0.0173 0 255 0
0.7263 -1.0980 -0.6607 0 255 0
0.8139 -1.9256 -0.4492 0 255 0
0.7754 -3.8598 -0.5423 0 254 0
0.8851 -1.7374 -0.2774 0 255 0
0.8564 -2.9668 -0.3467 0 254 0
0.7860 -2.5946 -0.5166 0 255 0
0.2190 -5.3615 -0.9093 0 255 0
0.6138 -4.2032 -0.7457 0 255 0
0.6923 -5.1082 -0.7133 0 255 0
0.5264 -3.8324 -0.7820 0 255 0
0.6665 -3.8254 -0.7239 0 255 0
0.2661 -4.9100 -0.8898 0 255 0
0.6010 -3.9459 -0.7510 0 254 0
0.2969 -2.2629 -0.8770 0 255 0
0.1187 -1.0638 -0.9508 0 255 0
0.0881 -3.8365 -0.9635 0 255 0
0.4521 -2.3446 -0.8127 0 255 0
0.0288 -1.6597 -0.9881 0 254 0
0.3667 -2.6017 -0.8481 0 255 0
0.1882 -2.6503 -0.9220 0 255 0
-0.1012 -2.0518 -0.9581 0 255 0
-0.3327 -3.4113 -0.8622 0 255 0
-0.1391 -4.7076 -0.9424 0 255 0
-0.6705 -5.7949 -0.7223 0 254 0
-0.1083 -2.7510 -0.9551 0 255 0
-0.0479 -5.5911 -0.9802 0 254 0
-0.4807 -3.2982 -0.8009 0 254 0
-0.3454 -1.9785 -0.8569 0 255 0
-0.2905 -1.4172 -0.8797 0 255 0
-0.6373 -4.0996 -0.7360 0 255 0
-0.5946 -4.3281 -0.7537 0 255 0
-0.5313 -4.1394 -0.7799 0 254 0
-0.8482 -4.5250 -0.3664 0 255 0
-0.8802 -5.8473 -0.2891 0 255 0
-0.7322 -1.2168 -0.6466 0 255 0
-0.9203 -5.3715 -0.1924 0 255 0
-0.8056 -3.2595 -0.4694 0 255 0
-0.7368 -1.4506 -0.6354 0 255 0
-0.8883 -5.9939 -0.2697 0 254 0
-0.8951 -3.9285 -0.2533 0 255 0
-0.8321 -2.7471 -0.4053 0 255 0
-0.9862 -1.7385 -0.0334 0 255 0
-0.9377 -1.8192 -0.1503 0 255 0
-0.9825 -5.1586 -0.0422 0 255 0
-0.9471 -4.6468 -0.1277 0 255 0
-0.8477 -2.1701 -0.3676 0 255 0
-0.8817 -5.8157 0.2856 0 255 0
-0.7780 -5.0259 0.5359 0 255 0
-0.8154 -5.7185 0.4456 0 255 0
-0.9910 -5.9718 0.0216 0 254 0
-0.9766 -5.5884 0.0564 0 255 0
-0.8912 -4.2026 0.2626 0 254 0
-0.8067 -2.9495 0.4668 0 255 0
-0.8186 -3.6190 0.4379 0 255 0
-0.8633 -1.7128 0.3299 0 255 0
-0.7094 -4.6620 0.7017 0 255 0
-0.7536 -4.4495 0.5949 0 255 0
-0.8038 -2.3171 0.4736 0 255 0
-0.7246 -5.0254 0.6648 0 255 0
-0.1641 -5.4318 0.9320 0 255 0
-0.4387 -5.2881 0.8183 0 255 0
-0.2695 -5.9520 0.8884 0 255 0
-0.3263 -5.9630 0.8649 0 255 0
-0.4653 -2.8019 0.8073 0 255 0
-0.6855 -4.2065 0.7160 0 255 0
-0.4356 -4.4194 0.8196 0 255 0
-0.0158 -1.9667 0.9934 0 255 0
-0.0556 -2.2321 0.9770 0 254 0
-0.2394 -3.9305 0.9009 0 255 0
-0.0284 -2.8949 0.9883 0 255 0
-0.2233 -2.4705 0.9075 0 255 0
-0.0895 -5.1115 0.9629 0 254 0
0.2066 -4.2240 0.9144 0 255 0
0.6059 -5.9833 0.7490 0 254 0
0.0975 -3.7070 0.9596 0 255 0
0.0953 -1.6915 0.9605 0 254 0
0.4227 -4.1725 0.8249 0 255 0
0.4556 -4.8014 0.8113 0 255 0
0.1705 -3.4980 0.9294 0 255 0
0.6370 -2.3859 0.7361 0 255 0
0.6990 -2.3708 0.7105 0 255 0
0.2489 -2.7330 0.8969 0 255 0
0.4699 -2.9887 0.8053 0 255 0
0.4874 -3.2897 0.7981 0 255 0
0.6168 -2.0947 0.7445 0 255 0
0.6685 -4.6664 0.7231 0 254 0
0.7701 -2.3809 0.5551 0 254 0
0.7439 -2.5472 0.6182 0 255 0
0.9384 -5.9649 0.1488 0 255 0
0.7087 -4.8826 0.7033 0 255 0
0.7276 -3.1059 0.6576 0 255 0
0.7255 -4.3036 0.6627 0 255 0
0.9437 -5.8994 0.1359 0 255 0
0.9661 -4.5994 0.0819 0 255 0
0.7711 -0.9007 0.5526 0 255 0
0.9086 -3.5237 0.2207 0 255 0
0.8359 -1.4776 0.3961 0 255 0
0.8963 -3.0954 0.2503 0 255 0
0.9129 -1.3187 0.2103 0 255 0
0.9335 2.2386 -0.1605 0 255 0
0.9810 2.9885 -0.0459 0 255 0
0.9722 1.2798 -0.0672 0 255 0
0.8674 3.1872 -0.3201 0 255 0
0.9294 3.7285 -0.1704 0 254 0
0.8962 1.6952 -0.2506 0 254 0
0.8875 3.9735 -0.2715 0 255 0
0.8710 5.8431 -0.3114 0 255 0
0.8534 4.1518 -0.3538 0 255 0
0.7380 2.1639 -0.6325 0 254 0
0.9037 5.6707 -0.2326 0 255 0
0.8295 5.9565 -0.4116 0 255 0
0.7762 5.5408 -0.5404 0 255 0
0.6173 3.9646 -0.7443 0 255 0
0.5584 4.9212 -0.7687 0 254 0
0.4863 2.4833 -0.7986 0 255 0
0.5119 2.6204 -0.7880 0 255 0
0.6964 2.9285 -0.7115 0 255 0
0.5922 2.5637 -0.7547 0 255 0
0.4227 3.8315 -0.8249 0 255 0
0.3529 3.6690 -0.8538 0 255 0
0.0262 4.9420 -0.9892 0 255 0
0.6171 5.5187 -0.7444 0 254 0
0.1560 3.6435 -0.9354 0 255 0
0.0526 4.4373 -0.9782 0 254 0
0.1275 4.7517 -0.9472 0 255 0
-0.5582 1.5030 -0.7688 0 255 0
-0.5936 1.3544 -0.7541 0 254 0
-0.6424 0.7733 -0.7339 0 255 0
-0.3993 1.4918 -0.8346 0 255 0
-0.2951 3.0629 -0.8777 0 255 0
-0.1420 1.1350 -0.9412 0 255 0
-0.4223 5.0944 -0.8251 0 255 0
-0.3588 3.8384 -0.8514 0 255 0
-0.4653 2.6383 -0.8073 0 255 0
-0.7042 4.2037 -0.7083 0 254 0
-0.4240 3.1518 -0.8244 0 255 0
-0.1872 5.6759 -0.9224 0 255 0
-0.6204 3.6196 -0.7430 0 255 0
-0.8774 0.9139 -0.2960 0 255 0
-0.8390 2.3546 -0.3886 0 254 0
-0.7583 2.0108 -0.5836 0 255 0
-0.7611 1.1352 -0.5768 0 255 0
-0.8213 3.3355 -0.4315 0 255 0
-0.9176 0.9277 -0.1990 0 254 0
-0.9887 1.4474 -0.0272 0 255 0
-0.9333 4.4975 -0.1609 0 255 0
-0.7926 5.2406 -0.5006 0 255 0
-0.9935 5.2788 -0.0156 0 255 0
-0.8784 4.1293 -0.2935 0 255 0
-0.9294 2.3814 -0.1705 0 255 0
-0.9651 4.1900 -0.0842 0 254 0
-0.8705 2.4369 0.3127 0 255 0
-0.8330 1.5438 0.4032 0 255 0
-0.9386 3.5741 0.1481 0 255 0
-0.9343 1.9732 0.1587 0 255 0
-0.8269 1.8140 0.4178 0 254 0
-0.8285 2.2272 0.4141 0 255 0
-0.9339 4.8365 0.1596 0 255 0
-0.9327 5.9155 0.1625 0 255 0
-0.7926 3.4522 0.5007 0 255 0
-0.7702 2.4244 0.5547 0 255 0
-0.7101 4.8911 0.6999 0 255 0
-0.7871 4.4272 0.5140 0 255 0
-0.7408 5.1428 0.6257 0 254 0
-0.1592 1.8953 0.9340 0 255 0
-0.6898 4.2231 0.7143 0 255 0
-0.4772 2.5673 0.8023 0 255 0
-0.6456 4.0120 0.7326 0 255 0
-0.3893 3.2653 0.8388 0 255 0
-0.6406 4.8551 0.7346 0 254 0
-0.2845 5.0015 0.8822 0 255 0
-0.2398 2.6999 0.9007 0 254 0
-0.4725 5.3315 0.8043 0 255 0
-0.0392 3.2750 0.9838 0 255 0
-0.0365 5.5565 0.9849 0 255 0
-0.3220 5.6173 0.8666 0 255 0
-0.1047 4.1511 0.9566 0 255 0
0.2452 3.2991 0.8984 0 255 0
0.2026 1.0967 0.9161 0 254 0
0.1637 2.5379 0.9322 0 254 0
0.5110 1.9334 0.7883 0 255 0
0.0735 4.6479 0.9695 0 255 0
0.0167 1.9516 0.9931 0 255 0
0.4634 1.5323 0.8081 0 255 0
0.5883 3.9508 0.7563 0 255 0
0.4594 5.6997 0.8097 0 255 0
0.6912 2.4383 0.7137 0 255 0
0.6983 1.4146 0.7108 0 254 0
0.6150 5.5035 0.7453 0 255 0
0.6178 5.5510 0.7441 0 255 0
0.7627 2.4159 0.5730 0 254 0
0.8657 1.2633 0.3242 0 255 0
0.8264 1.7464 0.4190 0 255 0
0.7867 2.4461 0.5149 0 254 0
0.7392 4.8556 0.6295 0 255 0
0.8119 2.0639 0.4542 0 255 0
0.9451 4.6827 0.1326 0 254 0
0.8897 5.0493 0.2664 0 255 0
0.9959 5.4801 0.0098 0 255 0
0.9842 1.6613 0.0382 0 255 0
0.8406 5.6805 0.3848 0 255 0
0.8518 5.6576 0.3577 0 255 0
0.9897 5.5300 0.0249 0 255 0
1.2859 6.0000 -0.2503 0 255 0
0.9167 6.0000 -0.3178 0 255 0
1.0980 6.0000 -0.5711 0 255 0
1.3361 6.0000 -0.5946 0 255 0
0.9648 6.0000 -1.1205 0 255 0
0.0287 6.0000 -1.3199 0 255 0
0.6600 6.0000 -1.3804 0 255 0
-0.0416 6.0000 -1.5563 0 255 0
-0.9581 6.0000 -1.2714 0 255 0
-0.3695 6.0000 -1.7819 0 255 0
-0.9347 6.0000 -0.5254 0 255 0
-1.7972 6.0000 -0.0954 0 255 0
-1.1988 6.0000 -0.0089 0 255 0
-1.5488 6.0000 0.1854 0 255 0
-0.9310 6.0000 0.4628 0 255 0
-1.5283 6.0000 0.5646 0 255 0
-1.5801 6.0000 0.2702 0 255 0
-1.3937 6.0000 0.7655 0 255 0
-0.9383 6.0000 1.1758 0 255 0
-0.3315 6.0000 1.5632 0 255 0
-0.1779 6.0000 1.4498 0 255 0
0.1217 6.0000 1.1692 0 255 0
0.9484 6.0000 0.9662 0 255 0
0.7300 6.0000 1.2935 0 255 0
1.0965 6.0000 0.5996 0 255 0
1.6979 6.0000 0.2208 0 255 0
1.2631 6.0000 0.7914 0 255 0
1.4263 6.0000 0.7387 0 255 0
1.2024 7.4511 -0.1739 0 254 0
1.4555 6.8128 -0.3336 0 255 0
1.3276 6.7640 -0.7010 0 255 0
1.7973 6.0664 -0.4092 0 255 0
1.3724 6.4544 -0.9667 0 255 0
1.0844 6.9912 -1.0139 0 255 0
1.0013 7.4866 -0.6166 0 255 0
1.1768 6.7090 -1.1315 0 255 0
0.8046 6.2696 -1.5319 0 254 0
0.7894 6.0514 -1.6473 0 255 0
0.5790 6.5747 -1.4729 0 255 0
0.9984 6.6564 -1.2582 0 255 0
0.2919 6.6584 -1.5499 0 255 0
0.9156 6.2143 -1.5136 0 255 0
0.0047 7.5450 -1.2255 0 255 0
0.0174 7.7562 -1.1147 0 255 0
0.4604 7.5784 -1.0201 0 255 0
-0.3358 7.4037 -1.1591 0 255 0
-0.2194 6.4320 -1.6931 0 255 0
-0.5543 6.7707 -1.3850 0 255 0
-0.0027 6.1494 -1.9242 0 255 0
-0.6678 6.3121 -1.5673 0 254 0
-0.7094 7.4952 -0.9586 0 254 0
-0.4139 7.4615 -1.0978 0 255 0
-0.2265 7.8917 -0.9603 0 255 0
-1.4105 6.7588 -0.5072 0 255 0
-1.4617 6.2544 -0.9925 0 255 0
-1.9548 6.0120 -0.0946 0 255 0
-1.3631 6.3790 -1.0801 0 254 0
-0.9187 7.4057 -0.9138 0 255 0
-1.0732 7.6902 -0.1973 0 255 0
-0.9184 7.8360 -0.3948 0 255 0
-1.2815 7.4343 -0.0031 0 255 0
-1.3918 6.6208 0.7189 0 255 0
-1.4423 6.3294 0.9487 0 255 0
-1.0811 7.6930 0.1748 0 255 0
-1.6888 6.1279 0.5970 0 255 0
-1.7510 6.2433 0.3075 0 255 0
-1.7047 6.3379 0.3051 0 255 0
-1.1589 6.9162 0.9247 0 255 0
-0.8072 7.8256 0.6761 0 255 0
-1.2584 6.4713 1.2214 0 255 0
-0.5445 6.7958 1.3766 0 255 0
-0.5302 6.2675 1.6466 0 255 0
-1.0692 6.2780 1.4181 0 255 0
-0.9410 6.1712 1.5246 0 255 0
-0.9826 6.5308 1.3276 0 255 0
-0.7176 6.9741 1.2157 0 255 0
-0.2285 6.6734 1.5686 0 255 0
-0.0832 7.6170 1.1570 0 254 0
-0.3749 7.4020 1.1437 0 255 0
0.8200 6.8158 1.2524 0 255 0
0.3170 6.4581 1.6397 0 255 0
1.4088 6.0011 1.4159 0 255 0
0.2433 7.1284 1.3350 0 255 0
0.1438 6.8947 1.4931 0 255 0
0.7658 6.8983 1.2337 0 255 0
0.9912 7.0482 1.0654 0 254 0
0.9985 7.0989 1.0369 0 254 0
1.2487 6.3537 1.3059 0 255 0
1.4450 6.7128 0.4795 0 255 0
1.0764 7.3845 0.5585 0 255 0
1.1783 6.7414 1.0887 0 255 0
1.6454 6.5436 0.2000 0 255 0
1.3269 6.9888 0.4315 0 255 0
0.9065 7.8200 0.4432 0 255 0
1.5737 6.7075 0.1752 0 255 0
1.6580 6.5549 0.1559 0 255 0
0.7603 8.1958 -0.3424 0 255 0
0.4570 8.8295 -0.3096 0 255 0
0.2774 8.5411 -0.6146 0 254 0
-0.2768 8.2808 -0.7450 0 254 0
-0.3632 8.8299 -0.4346 0 255 0
-0.6424 8.3257 -0.4702 0 255 0
-0.9773 8.0121 -0.0403 0 254 0
-0.8036 8.3620 -0.0372 0 255 0
-0.6993 8.5871 0.0171 0 255 0
-0.6657 8.3097 0.4333 0 255 0
-0.4699 8.8342 0.2728 0 254 0
-0.2760 8.2197 0.7758 0 255 0
-0.0826 8.8962 0.5177 0 254 0
0.0262 8.0929 0.9427 0 255 0
0.2098 8.8622 0.4820 0 255 0
0.5382 8.5323 0.4724 0 255 0
0.9306 8.0776 0.0740 0 255 0
0.8436 8.2542 0.0708 0 255 0
0.1570 9.6327 -0.0643 0 255 0
-0.0202 9.0200 -0.4816 0 255 0
-0.1174 9.7614 0.0046 0 255 0
-0.1847 9.3527 0.2471 0 255 0
0.0507 9.1702 0.3939 0 255 0
-0.2754 -0.2637 -6.0000 0 0 255
-0.1123 -0.1603 -6.0000 0 0 255
0.1945 -0.4243 -6.0000 0 0 255
0.4654 -0.3721 -6.0000 0 0 255
0.6006 -0.0674 -6.0000 0 0 255
0.8783 0.2092 -6.0000 0 0 255
0.0265 0.5996 -6.0000 0 0 255
-0.2353 0.6371 -6.0000 0 0 255
-0.2783 0.2057 -6.0000 0 0 255
-0.8743 -0.3036 -5.1067 0 0 255
-0.9230 -0.1860 -5.0789 0 0 255
-0.9300 -0.1690 -4.3631 0 0 255
-0.9591 -0.0987 -4.4524 0 0 255
-0.9384 -0.1488 -4.7046 0 0 255
-0.9142 -0.2072 -3.0982 0 0 255
-0.8005 -0.4817 -2.6320 0 0 255
-0.8175 -0.4405 -1.8305 0 0 255
-0.7387 -0.6309 -2.0589 0 0 254
-0.8855 -0.2765 -1.6042 0 0 254
-0.7167 -0.6838 -1.1090 0 0 254
-0.7796 -0.5322 -0.8460 0 0 255
-0.8402 -0.3858 -1.9157 0 0 254
-0.4393 -0.8180 -5.8175 0 0 254
-0.3558 -0.8526 -4.6398 0 0 255
-0.5758 -0.7615 -3.7183 0 0 254
-0.6588 -0.7271 -3.7528 0 0 255
-0.4622 -0.8085 -5.0475 0 0 255
-0.3629 -0.8497 -5.2469 0 0 255
-0.5355 -0.7782 -3.7571 0 0 255
-0.2901 -0.8798 -3.4985 0 0 255
-0.4211 -0.8256 -1.8159 0 0 255
-0.3651 -0.8488 -2.6258 0 0 255
-0.1147 -0.9525 -2.0721 0 0 255
-0.1266 -0.9476 -4.5101 0 0 255
-0.1928 -0.9201 -2.4963 0 0 255
0.3730 -0.8455 -5.2003 0 0 255
0.5295 -0.7807 -5.9371 0 0 255
0.1798 -0.9255 -4.4563 0 0 255
0.1712 -0.9291 -2.3863 0 0 255
0.1364 -0.9435 -3.8078 0 0 255
0.2555 -0.8942 -5.3021 0 0 255
0.4596 -0.8096 -3.7826 0 0 255
0.0919 -0.9619 -1.2913 0 0 255
0.5081 -0.7895 -3.5482 0 0 255
0.4227 -0.8249 -2.7235 0 0 255
0.1059 -0.9562 -1.2384 0 0 255
0.1288 -0.9467 -1.6247 0 0 254
0.4298 -0.8220 -2.9911 0 0 255
0.7758 -0.5412 -2.8507 0 0 255
0.8897 -0.2662 -5.8550 0 0 254
0.7449 -0.6159 -1.6826 0 0 255
0.7759 -0.5410 -3.6198 0 0 255
0.8169 -0.4420 -5.1935 0 0 255
0.7381 -0.6323 -3.5687 0 0 255
0.7750 -0.5431 -4.6565 0 0 255
0.9941 -0.0142 -1.3094 0 0 254
0.7694 -0.5567 -0.8249 0 0 255
0.8295 -0.4117 -2.7632 0 0 255
0.9091 -0.2194 -2.8154 0 0 255
0.9432 -0.1371 -3.4884 0 0 255
0.8065 -0.4672 -1.3950 0 0 255
0.9841 0.0384 -5.6676 0 0 255
0.9719 0.0679 -2.1547 0 0 255
0.9015 0.2379 -3.8820 0 0 255
0.9534 0.1125 -1.9631 0 0 255
0.9715 0.0688 -4.8622 0 0 255
0.9569 0.1041 -4.4083 0 0 255
0.7962 0.4919 -1.0509 0 0 255
0.8722 0.3086 -2.0238 0 0 255
0.7268 0.6595 -1.3706 0 0 255
0.8397 0.3869 -3.4930 0 0 255
0.8268 0.4181 -2.6597 0 0 254
0.8165 0.4429 -2.7122 0 0 255
0.1746 0.9277 -5.3706 0 0 254
0.6785 0.7189 -1.4476 0 0 254
0.3969 0.8356 -3.6638 0 0 255
0.5072 0.7899 -4.1702 0 0 255
0.6500 0.7308 -5.2434 0 0 254
0.3728 0.8456 -5.0740 0 0 255
0.4053 0.8321 -3.6719 0 0 255
0.0294 0.9878 -2.7139 0 0 255
0.0868 0.9640 -4.2848 0 0 255
0.0540 0.9776 -2.4654 0 0 255
0.0804 0.9667 -5.3225 0 0 255
0.0844 0.9650 -1.1592 0 0 255
0.2293 0.9050 -2.5409 0 0 255
0.0412 0.9829 -1.5512 0 0 255
-0.3285 0.8639 -5.4404 0 0 255
-0.0472 0.9805 -5.2069 0 0 255
-0.5149 0.7867 -5.1325 0 0 255
-0.2328 0.9036 -5.9945 0 0 255
-0.1126 0.9534 -5.1543 0 0 255
-0.2198 0.9090 -2.8337 0 0 255
-0.1076 0.9554 -2.3958 0 0 254
-0.3836 0.8411 -3.4248 0 0 255
-0.2587 0.8928 -1.0952 0 0 255
-0.4138 0.8286 -2.8817 0 0 255
-0.5962 0.7530 -2.9001 0 0 255
-0.6070 0.7486 -5.2506 0 0 254
-0.5591 0.7684 -2.4754 0 0 255
-0.2735 0.8867 -2.5134 0 0 254
-0.8558 0.3482 -3.8044 0 0 255
-0.7426 0.6214 -3.7652 0 0 254
-0.8937 0.2566 -5.3646 0 0 255
-0.7993 0.4844 -3.1169 0 0 255
-0.8147 0.4472 -3.2110 0 0 254
-0.7961 0.4922 -2.5224 0 0 255
-0.8464 0.3708 -3.2995 0 0 255
-0.8126 0.4523 -2.6071 0 0 255
-0.9575 0.1025 -1.7276 0 0 255
-0.9458 0.1308 -3.7766 0 0 254
-0.8868 0.2734 -2.6010 0 0 255
-0.9317 0.1649 -4.1545 0 0 255
-0.8883 0.2696 -2.3789 0 0 254
-0.9155 -0.2041 0.9396 0 0 255
-0.7720 -0.5504 1.5032 0 0 254
-0.9352 -0.1564 3.2984 0 0 255
-0.9617 -0.0925 1.4244 0 0 255
-0.9863 -0.0331 3.6449 0 0 255
-0.9042 -0.2314 2.6274 0 0 255
-0.7628 -0.5727 2.0938 0 0 255
-0.8600 -0.3380 4.4464 0 0 255
-0.8129 -0.4516 3.9773 0 0 254
-0.7646 -0.5683 5.0052 0 0 255
-0.7256 -0.6624 1.9581 0 0 254
-0.7527 -0.5970 3.5816 0 0 255
-0.7079 -0.7053 1.3646 0 0 254
-0.4191 -0.8264 2.1723 0 0 254
-0.5798 -0.7599 1.5338 0 0 254
-0.4585 -0.8101 3.0328 0 0 255
-0.6885 -0.7148 1.3865 0 0 255
-0.6292 -0.7394 2.0677 0 0 255
-0.1642 -0.9320 0.9952 0 0 255
-0.6590 -0.7271 5.5297 0 0 255
-0.5483 -0.7729 5.3638 0 0 255
-0.0478 -0.9802 4.3116 0 0 255
-0.5520 -0.7714 5.8609 0 0 255
-0.2888 -0.8804 4.9591 0 0 255
-0.0840 -0.9652 5.1392 0 0 255
-0.4187 -0.8266 4.2145 0 0 255
-0.3002 -0.8757 5.3132 0 0 255
0.5711 -0.7634 1.2101 0 0 255
0.0130 -0.9946 4.8670 0 0 254
0.3563 -0.8524 1.5843 0 0 255
0.2978 -0.8767 1.5420 0 0 254
0.4716 -0.8047 2.2454 0 0 255
0.3593 -0.8512 2.1503 0 0 255
0.5151 -0.7866 3.5867 0 0 254
0.2627 -0.8912 5.8380 0 0 255
0.3385 -0.8598 4.4465 0 0 254
0.3418 -0.8584 4.4236 0 0 254
0.5318 -0.7797 2.8144 0 0 255
0.3827 -0.8415 5.8569 0 0 255
0.7526 -0.5973 3.9728 0 0 255
0.7576 -0.5853 3.9991 0 0 255
0.8370 -0.3935 2.4215 0 0 255
0.7561 -0.5889 2.7566 0 0 255
0.8625 -0.3319 2.8524 0 0 255
0.7468 -0.6114 2.2334 0 0 255
0.8442 -0.3762 2.5124 0 0 255
0.8251 -0.4223 5.0554 0 0 254
0.8966 -0.2495 3.2001 0 0 255
0.9598 -0.0971 4.4769 0 0 255
0.8645 -0.3271 5.2229 0 0 255
0.9472 -0.1276 2.0670 0 0 254
0.9640 -0.0870 3.7485 0 0 255
0.7900 -0.5069 4.8470 0 0 255
0.9633 0.0885 1.6872 0 0 254
0.9184 0.1971 3.9713 0 0 255
0.9695 0.0736 4.8937 0 0 255
0.7914 0.5037 1.9015 0 0 255
0.9582 0.1009 2.9340 0 0 255
0.7978 0.4880 2.3244 0 0 255
0.7452 0.6152 2.5640 0 0 254
0.8373 0.3929 4.7997 0 0 255
0.8027 0.4764 5.2183 0 0 255
0.7572 0.5863 3.0325 0 0 255
0.7694 0.5567 3.2695 0 0 255
0.7209 0.6739 4.4442 0 0 255
0.3281 0.8641 1.5865 0 0 254
0.3658 0.8485 2.8614 0 0 255
0.4514 0.8130 2.3852 0 0 255
0.2115 0.9124 1.0286 0 0 254
0.5157 0.7864 2.9296 0 0 255
0.5230 0.7834 3.5839 0 0 254
0.0517 0.9786 5.2614 0 0 255
0.2500 0.8965 4.6267 0 0 255
0.5926 0.7545 5.7073 0 0 255
0.1213 0.9498 4.9027 0 0 255
0.0282 0.9883 4.8005 0 0 254
0.1953 0.9191 5.3031 0 0 255
-0.3804 0.8424 1.8412 0 0 255
-0.3097 0.8717 1.0900 0 0 254
-0.2041 0.9155 3.3772 0 0 255
-0.0331 0.9863 5.2771 0 0 255
-0.1078 0.9553 4.4507 0 0 255
-0.1081 0.9552 4.1046 0 0 255
-0.5429 0.7751 3.1242 0 0 255
-0.3217 0.8668 3.6029 0 0 255
-0.5078 0.7897 4.0888 0 0 255
-0.2019 0.9164 4.4943 0 0 255
-0.3520 0.8542 4.7972 0 0 255
-0.6229 0.7420 5.6852 0 0 255
-0.6908 0.7138 4.7041 0 0 254
-0.9725 0.0663 1.3477 0 0 255
-0.7349 0.6399 4.4255 0 0 255
-0.8445 0.3753 2.1960 0 0 255
-0.7974 0.4892 2.5792 0 0 255
-0.9324 0.1632 1.6601 0 0 255
-0.8548 0.3506 2.9676 0 0 254
-0.7973 0.4893 2.6315 0 0 255
-0.8817 0.2857 5.1546 0 0 255
-0.9849 0.0364 4.0273 0 0 255
-0.9786 0.0517 2.8732 0 0 255
-0.8194 0.4361 5.8152 0 0 255
-0.9850 0.0362 3.4103 0 0 255
-0.9722 0.0670 3.8979 0 0 255
-0.9452 0.1322 3.2305 0 0 255
-1.4019 -0.0023 6.0000 0 0 255
-1.3689 -1.2910 6.0000 0 0 255
-1.6802 -0.2018 6.0000 0 0 255
-1.7975 -0.3464 6.0000 0 0 255
-0.2739 -1.0586 6.0000 0 0 255
-0.0602 -1.7009 6.0000 0 0 255
-1.1304 -1.3757 6.0000 0 0 255
0.3187 -0.9332 6.0000 0 0 255
0.7346 -1.5882 6.0000 0 0 255
1.2047 -1.3259 6.0000 0 0 254
0.6723 -1.6650 6.0000 0 0 255
1.1458 -0.6063 6.0000 0 0 255
1.5359 -0.6481 6.0000 0 0 255
1.8251 -0.0433 6.0000 0 0 255
1.2836 -0.1723 6.0000 0 0 255
1.1541 0.0758 6.0000 0 0 255
1.3294 0.6270 6.0000 0 0 254
1.1938 1.1816 6.0000 0 0 254
1.3377 1.1906 6.0000 0 0 255
0.5487 1.0675 6.0000 0 0 255
0.2449 1.1935 6.0000 0 0 255
0.0902 1.7397 6.0000 0 0 255
-0.2932 1.0821 6.0000 0 0 255
-0.3036 1.6546 6.0000 0 0 255
-0.5866 1.1509 6.0000 0 0 255
-1.0956 0.4870 6.0000 0 0 255
-1.5312 0.8381 6.0000 0 0 255
-1.6862 0.2000 6.0000 0 0 255
-1.6601 -0.3323 6.4046 0 0 255
-1.4907 -0.6561 6.4752 0 0 255
-1.3721 -1.1754 6.2821 0 0 255
-1.4364 -0.0137 7.1159 0 0 255
-1.0716 -0.0077 7.8504 0 0 255
-1.2176 -0.5817 7.0829 0 0 255
-0.7603 -0.7181 7.8844 0 0 254
-1.0740 -0.3040 7.6002 0 0 255
-1.0943 -0.9104 7.0571 0 0 255
-0.8345 -1.5284 6.2519 0 0 255
-1.1023 -1.3034 6.4801 0 0 254
-0.5604 -1.4892 6.5573 0 0 255
-0.4079 -1.5122 6.6376 0 0 255
-0.2490 -1.5474 6.6989 0 0 255
-0.5293 -1.7132 6.1351 0 0 255
-0.1486 -1.2699 7.3371 0 0 255
-0.0867 -1.2965 7.3352 0 0 255
-0.2030 -1.4440 6.9439 0 0 255
0.2347 -1.4755 6.8547 0 0 255
0.3643 -1.3603 6.9776 0 0 255
0.9668 -1.4989 6.2013 0 0 255
0.5128 -1.2734 7.0284 0 0 255
0.8198 -1.4088 6.5032 0 0 255
0.1076 -1.8660 6.1788 0 0 255
0.5420 -1.1325 7.2859 0 0 255
0.4859 -0.9778 7.6419 0 0 255
0.8760 -1.0599 7.1545 0 0 255
1.4905 -0.6912 6.4463 0 0 255
1.3966 -0.6448 6.6725 0 0 255
1.8306 -0.3540 6.0454 0 0 255
1.2591 -0.9044 6.7326 0 0 254
1.5626 -0.9901 6.0547 0 0 255
1.6642 -0.3714 6.3639 0 0 255
1.6327 -0.1437 6.6156 0 0 255
1.5002 -0.0381 6.9681 0 0 255
1.3939 1.2375 6.1871 0 0 255
1.5458 0.5966 6.4142 0 0 255
1.7767 0.1914 6.2881 0 0 255
1.5606 0.0427 6.8434 0 0 255
1.6789 0.3676 6.3376 0 0 255
1.5129 0.2368 6.7780 0 0 255
0.9073 0.4597 7.8045 0 0 255
1.2514 1.2340 6.4749 0 0 255
0.7920 0.7325 7.8092 0 0 255
0.9975 1.1413 6.8910 0 0 255
0.9527 1.4202 6.3703 0 0 255
0.7134 1.6632 6.0825 0 0 255
0.1831 1.8340 6.1803 0 0 255
1.1157 1.5100 6.0557 0 0 255
0.9288 1.1101 7.0104 0 0 254
0.2710 1.4760 6.8236 0 0 255
0.2442 1.4984 6.8010 0 0 255
0.0598 1.5601 6.8302 0 0 255
-0.1954 1.1928 7.4525 0 0 255
-0.7539 1.4829 6.4096 0 0 255
-0.6977 1.6173 6.1873 0 0 254
-0.5925 1.5326 6.4439 0 0 255
-0.0270 1.3164 7.3449 0 0 255
-0.3104 1.6764 6.3900 0 0 255
-0.6632 0.9606 7.5294 0 0 255
-0.5704 0.9654 7.5966 0 0 255
-0.4374 1.0840 7.4696 0 0 255
-0.9225 0.8942 7.4141 0 0 255
-1.3928 0.5294 6.7759 0 0 255
-1.8052 0.1324 6.2799 0 0 255
-1.6548 0.7030 6.1081 0 0 254
-1.6054 0.3257 6.5193 0 0 255
-1.4838 0.9831 6.2179 0 0 255
-1.1739 0.4213 7.3033 0 0 255
-1.0964 0.4677 7.4198 0 0 255
-1.1090 0.2546 7.5711 0 0 255
-0.6801 -0.3626 8.3395 0 0 255
-0.5830 -0.5166 8.4060 0 0 255
-0.1222 -0.8127 8.2734 0 0 255
-0.3471 -0.7640 8.1844 0 0 255
0.0150 -0.6868 8.6141 0 0 255
0.1905 -0.5450 8.7522 0 0 254
0.7306 -0.2481 8.3333 0 0 255
0.6860 -0.0442 8.5914 0 0 255
0.7237 0.4441 8.1847 0 0 255
0.6112 0.2175 8.5974 0 0 255
0.4195 0.3055 8.9078 0 0 255
0.2579 0.8320 8.1224 0 0 255
0.2500 0.4629 8.8670 0 0 255
-0.1947 0.5781 8.6825 0 0 255
-0.0579 0.5043 8.9434 0 0 255
-0.7266 0.5688 8.0756 0 0 255
-0.8142 0.2625 8.1541 0 0 255
-0.8709 0.0614 8.2074 0 0 254
0.0915 -0.1282 9.6677 0 0 255
0.2792 -0.0559 9.3952 0 0 255
0.1879 -0.0489 9.5837 0 0 255
-0.1179 0.0900 9.6897 0 0 255
0.0871 0.0232 9.8066 0 0 254
