296
-3.5 -3.5 -3.5 2047
-3.5 -3.5 -2.5 1697
-3.5 -3.5 -1.5 1445
-3.5 -3.5 -0.5 1312
-3.5 -3.5 0.5 1312
-3.5 -3.5 1.5 1445
-3.5 -3.5 2.5 1697
-3.5 -3.5 3.5 2047
-3.5 -2.5 -3.5 1697
-3.5 -2.5 -2.5 1312
-3.5 -2.5 -1.5 1029
-3.5 -2.5 -0.5 877
-3.5 -2.5 0.5 877
-3.5 -2.5 1.5 1029
-3.5 -2.5 2.5 1312
-3.5 -2.5 3.5 1697
-3.5 -1.5 -3.5 1445
-3.5 -1.5 -2.5 1029
-3.5 -1.5 -1.5 716
-3.5 -1.5 -0.5 546
-3.5 -1.5 0.5 546
-3.5 -1.5 1.5 716
-3.5 -1.5 2.5 1029
-3.5 -1.5 3.5 1445
-3.5 -0.5 -3.5 1312
-3.5 -0.5 -2.5 877
-3.5 -0.5 -1.5 546
-3.5 -0.5 -0.5 364
-3.5 -0.5 0.5 364
-3.5 -0.5 1.5 546
-3.5 -0.5 2.5 877
-3.5 -0.5 3.5 1312
-3.5 0.5 -3.5 1312
-3.5 0.5 -2.5 877
-3.5 0.5 -1.5 546
-3.5 0.5 -0.5 364
-3.5 0.5 0.5 364
-3.5 0.5 1.5 546
-3.5 0.5 2.5 877
-3.5 0.5 3.5 1312
-3.5 1.5 -3.5 1445
-3.5 1.5 -2.5 1029
-3.5 1.5 -1.5 716
-3.5 1.5 -0.5 546
-3.5 1.5 0.5 546
-3.5 1.5 1.5 716
-3.5 1.5 2.5 1029
-3.5 1.5 3.5 1445
-3.5 2.5 -3.5 1697
-3.5 2.5 -2.5 1312
-3.5 2.5 -1.5 1029
-3.5 2.5 -0.5 877
-3.5 2.5 0.5 877
-3.5 2.5 1.5 1029
-3.5 2.5 2.5 1312
-3.5 2.5 3.5 1697
-3.5 3.5 -3.5 2047
-3.5 3.5 -2.5 1697
-3.5 3.5 -1.5 1445
-3.5 3.5 -0.5 1312
-3.5 3.5 0.5 1312
-3.5 3.5 1.5 1445
-3.5 3.5 2.5 1697
-3.5 3.5 3.5 2047
-2.5 -3.5 -3.5 1697
-2.5 -3.5 -2.5 1312
-2.5 -3.5 -1.5 1029
-2.5 -3.5 -0.5 877
-2.5 -3.5 0.5 877
-2.5 -3.5 1.5 1029
-2.5 -3.5 2.5 1312
-2.5 -3.5 3.5 1697
-2.5 -2.5 -3.5 1312
-2.5 -2.5 3.5 1312
-2.5 -1.5 -3.5 1029
-2.5 -1.5 3.5 1029
-2.5 -0.5 -3.5 877
-2.5 -0.5 3.5 877
-2.5 0.5 -3.5 877
-2.5 0.5 3.5 877
-2.5 1.5 -3.5 1029
-2.5 1.5 3.5 1029
-2.5 2.5 -3.5 1312
-2.5 2.5 3.5 1312
-2.5 3.5 -3.5 1697
-2.5 3.5 -2.5 1312
-2.5 3.5 -1.5 1029
-2.5 3.5 -0.5 877
-2.5 3.5 0.5 877
-2.5 3.5 1.5 1029
-2.5 3.5 2.5 1312
-2.5 3.5 3.5 1697
-1.5 -3.5 -3.5 1445
-1.5 -3.5 -2.5 1029
-1.5 -3.5 -1.5 716
-1.5 -3.5 -0.5 546
-1.5 -3.5 0.5 546
-1.5 -3.5 1.5 716
-1.5 -3.5 2.5 1029
-1.5 -3.5 3.5 1445
-1.5 -2.5 -3.5 1029
-1.5 -2.5 3.5 1029
-1.5 -1.5 -3.5 716
-1.5 -1.5 3.5 716
-1.5 -0.5 -3.5 546
-1.5 -0.5 3.5 546
-1.5 0.5 -3.5 546
-1.5 0.5 3.5 546
-1.5 1.5 -3.5 716
-1.5 1.5 3.5 716
-1.5 2.5 -3.5 1029
-1.5 2.5 3.5 1029
-1.5 3.5 -3.5 1445
-1.5 3.5 -2.5 1029
-1.5 3.5 -1.5 716
-1.5 3.5 -0.5 546
-1.5 3.5 0.5 546
-1.5 3.5 1.5 716
-1.5 3.5 2.5 1029
-1.5 3.5 3.5 1445
-0.5 -3.5 -3.5 1312
-0.5 -3.5 -2.5 877
-0.5 -3.5 -1.5 546
-0.5 -3.5 -0.5 364
-0.5 -3.5 0.5 364
-0.5 -3.5 1.5 546
-0.5 -3.5 2.5 877
-0.5 -3.5 3.5 1312
-0.5 -2.5 -3.5 877
-0.5 -2.5 3.5 877
-0.5 -1.5 -3.5 546
-0.5 -1.5 3.5 546
-0.5 -0.5 -3.5 364
-0.5 -0.5 3.5 364
-0.5 0.5 -3.5 364
-0.5 0.5 3.5 364
-0.5 1.5 -3.5 546
-0.5 1.5 3.5 546
-0.5 2.5 -3.5 877
-0.5 2.5 3.5 877
-0.5 3.5 -3.5 1312
-0.5 3.5 -2.5 877
-0.5 3.5 -1.5 546
-0.5 3.5 -0.5 364
-0.5 3.5 0.5 364
-0.5 3.5 1.5 546
-0.5 3.5 2.5 877
-0.5 3.5 3.5 1312
0.5 -3.5 -3.5 1312
0.5 -3.5 -2.5 877
0.5 -3.5 -1.5 546
0.5 -3.5 -0.5 364
0.5 -3.5 0.5 364
0.5 -3.5 1.5 546
0.5 -3.5 2.5 877
0.5 -3.5 3.5 1312
0.5 -2.5 -3.5 877
0.5 -2.5 3.5 877
0.5 -1.5 -3.5 546
0.5 -1.5 3.5 546
0.5 -0.5 -3.5 364
0.5 -0.5 3.5 364
0.5 0.5 -3.5 364
0.5 0.5 3.5 364
0.5 1.5 -3.5 546
0.5 1.5 3.5 546
0.5 2.5 -3.5 877
0.5 2.5 3.5 877
0.5 3.5 -3.5 1312
0.5 3.5 -2.5 877
0.5 3.5 -1.5 546
0.5 3.5 -0.5 364
0.5 3.5 0.5 364
0.5 3.5 1.5 546
0.5 3.5 2.5 877
0.5 3.5 3.5 1312
1.5 -3.5 -3.5 1445
1.5 -3.5 -2.5 1029
1.5 -3.5 -1.5 716
1.5 -3.5 -0.5 546
1.5 -3.5 0.5 546
1.5 -3.5 1.5 716
1.5 -3.5 2.5 1029
1.5 -3.5 3.5 1445
1.5 -2.5 -3.5 1029
1.5 -2.5 3.5 1029
1.5 -1.5 -3.5 716
1.5 -1.5 3.5 716
1.5 -0.5 -3.5 546
1.5 -0.5 3.5 546
1.5 0.5 -3.5 546
1.5 0.5 3.5 546
1.5 1.5 -3.5 716
1.5 1.5 3.5 716
1.5 2.5 -3.5 1029
1.5 2.5 3.5 1029
1.5 3.5 -3.5 1445
1.5 3.5 -2.5 1029
1.5 3.5 -1.5 716
1.5 3.5 -0.5 546
1.5 3.5 0.5 546
1.5 3.5 1.5 716
1.5 3.5 2.5 1029
1.5 3.5 3.5 1445
2.5 -3.5 -3.5 1697
2.5 -3.5 -2.5 1312
2.5 -3.5 -1.5 1029
2.5 -3.5 -0.5 877
2.5 -3.5 0.5 877
2.5 -3.5 1.5 1029
2.5 -3.5 2.5 1312
2.5 -3.5 3.5 1697
2.5 -2.5 -3.5 1312
2.5 -2.5 3.5 1312
2.5 -1.5 -3.5 1029
2.5 -1.5 3.5 1029
2.5 -0.5 -3.5 877
2.5 -0.5 3.5 877
2.5 0.5 -3.5 877
2.5 0.5 3.5 877
2.5 1.5 -3.5 1029
2.5 1.5 3.5 1029
2.5 2.5 -3.5 1312
2.5 2.5 3.5 1312
2.5 3.5 -3.5 1697
2.5 3.5 -2.5 1312
2.5 3.5 -1.5 1029
2.5 3.5 -0.5 877
2.5 3.5 0.5 877
2.5 3.5 1.5 1029
2.5 3.5 2.5 1312
2.5 3.5 3.5 1697
3.5 -3.5 -3.5 2047
3.5 -3.5 -2.5 1697
3.5 -3.5 -1.5 1445
3.5 -3.5 -0.5 1312
3.5 -3.5 0.5 1312
3.5 -3.5 1.5 1445
3.5 -3.5 2.5 1697
3.5 -3.5 3.5 2047
3.5 -2.5 -3.5 1697
3.5 -2.5 -2.5 1312
3.5 -2.5 -1.5 1029
3.5 -2.5 -0.5 877
3.5 -2.5 0.5 877
3.5 -2.5 1.5 1029
3.5 -2.5 2.5 1312
3.5 -2.5 3.5 1697
3.5 -1.5 -3.5 1445
3.5 -1.5 -2.5 1029
3.5 -1.5 -1.5 716
3.5 -1.5 -0.5 546
3.5 -1.5 0.5 546
3.5 -1.5 1.5 716
3.5 -1.5 2.5 1029
3.5 -1.5 3.5 1445
3.5 -0.5 -3.5 1312
3.5 -0.5 -2.5 877
3.5 -0.5 -1.5 546
3.5 -0.5 -0.5 364
3.5 -0.5 0.5 364
3.5 -0.5 1.5 546
3.5 -0.5 2.5 877
3.5 -0.5 3.5 1312
3.5 0.5 -3.5 1312
3.5 0.5 -2.5 877
3.5 0.5 -1.5 546
3.5 0.5 -0.5 364
3.5 0.5 0.5 364
3.5 0.5 1.5 546
3.5 0.5 2.5 877
3.5 0.5 3.5 1312
3.5 1.5 -3.5 1445
3.5 1.5 -2.5 1029
3.5 1.5 -1.5 716
3.5 1.5 -0.5 546
3.5 1.5 0.5 546
3.5 1.5 1.5 716
3.5 1.5 2.5 1029
3.5 1.5 3.5 1445
3.5 2.5 -3.5 1697
3.5 2.5 -2.5 1312
3.5 2.5 -1.5 1029
3.5 2.5 -0.5 877
3.5 2.5 0.5 877
3.5 2.5 1.5 1029
3.5 2.5 2.5 1312
3.5 2.5 3.5 1697
3.5 3.5 -3.5 2047
3.5 3.5 -2.5 1697
3.5 3.5 -1.5 1445
3.5 3.5 -0.5 1312
3.5 3.5 0.5 1312
3.5 3.5 1.5 1445
3.5 3.5 2.5 1697
3.5 3.5 3.5 2047
